# .PCD v0.7 - Point Cloud Data file format
VERSION 0.7
FIELDS x y z
SIZE 4 4 4
TYPE F F F
COUNT 1 1 1
WIDTH 1379
HEIGHT 1
VIEWPOINT 0 0 0 1 0 0 0
POINTS 1379
DATA ascii
0.95119756 -1.2184082 0.62729794
0.93001997 -1.2335669 0.59114921
2.8842168 -3.120014 1.9096702
0.97195852 -1.1479169 0.64834368
0.95727533 -1.1704705 0.61326176
0.93616557 -1.1824694 0.57610792
2.946583 -3.0512946 1.9060609
0.97671598 -1.102483 0.63530111
0.96673727 -1.1267047 0.6012609
0.9502641 -1.1435316 0.566154
0.99749625 -1.0455838 0.66137147
0.98728687 -1.0656914 0.62632203
0.97303742 -1.0828794 0.58923399
0.95758647 -1.096248 0.55312926
1.0052038 -1.0096874 0.65237039
0.9845525 -1.0163261 0.61021054
0.97992611 -1.0409615 0.5782153
0.95954829 -1.0485493 0.53905958
3.1333418 -2.844173 1.9002289
3.0931227 -2.8802924 1.7859578
0.98557031 -0.99838912 0.5661853
0.96893424 -1.0079416 0.52906394
3.1901004 -2.7709205 1.8965653
3.1509199 -2.8035848 1.7792965
3.1225309 -2.8475087 1.6701373
3.0873246 -2.8830781 1.5629069
3.2496383 -2.699929 1.8959289
3.2226617 -2.7381945 1.7817707
3.1894388 -2.7731833 1.6655555
3.1506176 -2.8004661 1.5552803
3.3157046 -2.6331654 1.8993539
3.2841763 -2.6634464 1.7801439
3.2492042 -2.6927173 1.6589037
3.2241304 -2.7272103 1.5527549
3.372447 -2.5599089 1.8976902
3.3456986 -2.5887003 1.777517
3.3201272 -2.6213057 1.6593604
3.2905095 -2.6478162 1.5471597
3.4360082 -2.4918332 1.9010923
3.4115431 -2.5178239 1.7789328
3.3842063 -2.5447083 1.6577511
3.3537776 -2.5651987 1.5425329
3.5002174 -2.422503 1.9054977
3.4730408 -2.4430726 1.7793058
3.4489417 -2.4668579 1.6561453
3.4266772 -2.4900305 1.5419992
3.561631 -2.3509078 1.9088756
3.5392349 -2.3699872 1.7817206
3.5214591 -2.3938916 1.6586125
3.496475 -2.4116411 1.541434
3.6177516 -2.2757373 1.9102037
3.6041679 -2.2962441 1.7851239
3.588675 -2.317348 1.6600295
3.5628803 -2.3290782 1.5398337
3.6838534 -2.2058065 1.9166235
3.6725442 -2.2235117 1.7905574
3.6487572 -2.2346661 1.6583767
3.634562 -2.2500865 1.5422831
3.7481053 -2.1333108 1.9230236
3.7328405 -2.1449404 1.7919139
3.7303438 -2.164073 1.667923
3.7071984 -2.1707969 1.5447398
3.8148468 -2.062124 1.9314466
3.8062627 -2.0716653 1.8003882
3.7923102 -2.0807889 1.6692848
3.7786412 -2.0876892 1.5471802
3.8806901 -1.9880875 1.9398543
3.8709297 -1.993814 1.8067793
3.8646209 -2.0005527 1.6747346
3.8563209 -2.0078697 1.5526749
5.9564672 0.33328578 2.5198388
3.9462385 -1.913083 1.9482608
6.0691748 0.46536875 2.3865273
3.9337583 -1.9133865 1.8121536
6.1706061 0.60018259 2.2461176
0.10916903 0.10437533 0.083975382
3.9381707 -1.9209559 1.6821988
6.296185 0.73108971 2.1219144
-0.072686747 -0.01568998 0.00068801502
3.9231024 -1.9199291 1.5560684
6.0647578 0.47522324 2.5604796
0.10385706 0.12154306 0.076900721
4.0102272 -1.8364662 1.9576516
6.1959519 0.61835808 2.4353011
0.098946795 0.12732032 0.071849771
4.0103855 -1.8370055 1.8226491
6.3232136 0.76756299 2.3020787
-0.072686665 -0.015689995 0.0006879968
4.0076718 -1.838438 1.6886245
6.4398928 0.91032994 2.1717808
0.10567358 0.11898514 0.080920391
3.9983306 -1.8356211 1.5625379
6.1137643 0.61633998 2.5776322
-0.072686613 -0.015690003 0.00068798469
4.0820661 -1.7615734 1.9701104
6.3450394 0.78359061 2.4912367
4.0782518 -1.7560337 1.8320642
6.4712353 0.94293487 2.3569877
0.1001182 0.10991897 0.081890807
4.0703292 -1.7507344 1.6929843
6.6239128 1.1043364 2.2379537
-0.072686531 -0.015690016 0.00068796647
4.0717092 -1.7487485 1.5689878
6.2246981 0.76645935 2.6232803
0.09611024 0.12959407 0.075822458
4.1464043 -1.6827476 1.9805002
6.498611 0.95444149 2.5532
0.23551098 0.2687628 0.13472505
4.1470718 -1.6747631 1.8414866
6.6485071 1.131693 2.4241142
-0.072686441 -0.015690031 0.00068794825
4.1492662 -1.6683843 1.7054884
6.8039956 1.3075889 2.3040776
0.098225072 0.12608169 0.079846285
4.1560907 -1.6636575 1.5795317
6.3645234 0.9277575 2.6811471
-0.072686389 -0.015690038 0.00068793615
4.2086115 -1.6004058 1.9888663
6.5852876 1.1220797 2.5886168
4.22439 -1.5939626 1.85498
6.8297496 1.3311348 2.4942548
0.094578542 0.1176122 0.080831371
4.2342196 -1.5851966 1.7190404
7.001677 1.5247548 2.3773222
4.9115939 4.3267913 2.3610997
4.227015 -1.5723089 1.5869534
6.526278 1.099097 2.7491772
-0.072686277 -0.015690057 0.00068791187
4.2848825 -1.5230578 2.0063574
6.6957946 1.3003581 2.6352112
0.2090068 0.26988536 0.12950446
4.298316 -1.508988 1.867438
7.0203004 1.5408505 2.571454
-0.072686225 -0.015690066 0.00068789977
4.3088775 -1.4958112 1.7294966
7.199862 1.7536201 2.4545503
4.3142943 -1.4831557 1.6005141
6.6881351 1.2767636 2.8191967
0.23547104 0.28870878 0.14668956
4.3618774 -1.4412974 2.0228467
6.868423 1.49712 2.7082858
-0.072686136 -0.015690079 0.00068788155
4.3709807 -1.4233556 1.8808844
7.1033711 1.7367105 2.609791
4.8997521 4.348691 2.4659677
4.3913684 -1.4081461 1.7450205
7.4369435 2.005182 2.5460587
0.25224546 0.29505652 0.15981695
4.39502 -1.3897694 1.613013
6.858429 1.4675616 2.8932626
-0.072686054 -0.015690092 0.00068786339
4.4216304 -1.3544799 2.0321844
7.0592976 1.7090498 2.7894835
0.16735804 0.25261894 0.11619156
4.4527988 -1.3369399 1.8984052
7.2845039 1.9665273 2.6858766
-0.072686002 -0.015690101 0.00068785128
4.4660692 -1.3155955 1.7574714
7.3472886 2.1751032 2.5290163
4.4748592 -1.2935214 1.6244998
7.034595 1.6696422 2.9713569
0.21604867 0.29729229 0.1435141
4.5115042 -1.2738973 2.0567822
7.2751355 1.9414032 2.8818512
-0.07268592 -0.015690114 0.00068783318
4.5283785 -1.2472489 1.9128685
7.3574414 2.1780741 2.7231019
0.25444642 0.2978746 0.16783036
4.5489697 -1.2225599 1.7739892
7.1729121 2.318424 2.4843225
0.23442538 0.30519292 0.15765196
4.5663409 -1.1977991 1.6420834
7.232511 1.8890418 3.0596001
-0.07268583 -0.015690129 0.00068781502
4.5847926 -1.187005 2.0742316
7.2590981 2.1166165 2.8864071
0.14461212 0.25177318 0.11100543
4.604001 -1.1543927 1.9293267
7.1845298 2.3134539 2.6744342
-0.072685778 -0.015690139 0.00068780291
4.6319289 -1.1263623 1.7905018
7.0389757 2.4660697 2.4549549
4.6487799 -1.0965345 1.6565827
7.2648387 2.0700138 3.0805445
0.15860745 0.26038226 0.12110578
4.6647449 -1.0980207 2.0937326
7.0997605 2.248888 2.8338568
-0.072685696 -0.015690152 0.00068778481
4.6915722 -1.0630181 1.950886
7.0426068 2.4533296 2.6370139
0.23408611 0.30615619 0.16264763
1.5701929 -0.36282161 0.62086749
6.876421 2.6015873 2.4163723
0.20342913 0.30069873 0.14740418
1.580883 -0.35234234 0.5759353
7.1425152 2.2076168 3.0392902
-0.072685614 -0.015690165 0.0006877667
1.6018834 -0.35975274 0.73512721
6.9742336 2.3865592 2.7975757
0.1318461 0.26245046 0.11088119
1.5982198 -0.34332681 0.68006575
6.8869286 2.5836539 2.5964975
-0.072685555 -0.015690174 0.0006877546
1.5401975 -0.31673926 0.60453749
6.7216482 2.7322209 2.3818631
1.5468313 -0.3033371 0.55956668
7.010561 2.3359058 2.9939725
0.13681595 0.25983486 0.115927
1.5630412 -0.3154099 0.7137273
6.8755708 2.5284891 2.773509
-0.072685473 -0.015690189 0.00068773649
1.5169765 -0.29030567 0.64230037
6.7479639 2.7139904 2.5621192
0.19952744 0.29634893 0.1503799
1.516433 -0.27393019 0.59226489
6.5842276 2.8641229 2.355495
0.1462432 0.25966898 0.12300523
1.5139644 -0.25814787 0.54421467
6.868721 2.4590006 2.9465826
-0.072685391 -0.015690202 0.00068771839
1.5279406 -0.27303174 0.69436175
6.774045 2.6695244 2.7494202
0.10061187 0.24530944 0.100654
1.4655124 -0.24573033 0.61779588
6.6035714 2.8415825 2.5277009
-0.072685331 -0.015690211 0.00068770634
1.4898136 -0.23201805 0.57897031
6.435328 2.9892759 2.3250439
1.4804332 -0.21420962 0.52985948
6.7350883 2.5825787 2.9022598
0.12434823 0.26955765 0.11580691
1.5185795 -0.23618013 0.68621856
6.6492701 2.7980144 2.716162
-0.072685249 -0.015690224 0.00068768824
1.4605408 -0.20958894 0.61269027
6.4616079 2.9647043 2.4953108
0.14977288 0.26498914 0.12902504
1.4527876 -0.19023295 0.56159002
6.292727 3.1143153 2.2976453
0.13217317 0.2678389 0.12187467
1.4701607 -0.17449108 0.52370375
6.5982428 2.7030523 2.856916
-0.072685167 -0.015690239 0.0006876702
1.4365692 -0.19073696 0.64746034
6.5105166 2.9210658 2.6777983
0.073477201 0.2284109 0.092460215
1.4470637 -0.1729762 0.60451365
6.3192863 3.0856185 2.4629211
-0.072685108 -0.015690248 0.00068765815
1.4626203 -0.15467638 0.56260777
6.16118 3.2407365 2.2753353
1.1698018 -0.1127104 0.42011476
6.4679189 2.8193004 2.8166337
0.084633961 0.23611961 0.099538662
1.4595361 -0.1604781 0.65459585
6.3725834 3.0380957 2.6414518
-0.072685026 -0.015690261 0.0006876401
1.4489874 -0.13885726 0.60246855
6.1914711 3.2069025 2.4366512
0.12764011 0.26223093 0.12184731
1.4938623 -0.12077438 0.57180506
6.0339627 3.363286 2.256068
0.11033045 0.264128 0.11570106
1.1773086 -0.083119407 0.42112386
6.3769355 2.9500194 2.7946506
-0.072684944 -0.015690276 0.00068762206
1.47121 -0.12748474 0.65663338
6.2485514 3.1574061 2.6122162
0.050160266 0.21270573 0.084295757
1.4909257 -0.10578083 0.61675566
6.05406 3.3220398 2.409313
-0.072684884 -0.015690286 0.00068761001
1.5223087 -0.084607542 0.57997531
-0.072684862 -0.015690289 0.00068760529
1.3607394 -0.058008291 0.48059285
6.2910657 3.0844412 2.7747025
0.063984476 0.22859089 0.093381688
1.5074381 -0.096201964 0.66887653
6.1117353 3.2674601 2.5778918
-0.072684802 -0.015690299 0.00068759196
1.5483242 -0.072036438 0.6371693
-0.07268478 -0.015690302 0.00068758725
0.11322051 0.26819178 0.11971778
1.5807292 -0.047404993 0.59939104
0.11838891 0.10196941 0.073055029
0.077050112 0.23689626 0.10047481
1.2377728 -0.022237303 0.4385142
6.1872225 3.2027457 2.7496357
-0.07268472 -0.015690314 0.00068757392
1.5493599 -0.063122019 0.68516368
5.9907122 3.3803947 2.5526924
0.011382993 0.15963238 0.063070044
5.2942438 -0.08193589 2.1001089
-0.072684668 -0.015690321 0.00068756321
-0.072684661 -0.015690323 0.00068756193
5.3546286 0.0065252897 1.9604439
1.2579442 0.010286529 0.4446227
6.0582891 3.3110685 2.7143788
0.033440229 0.19593257 0.079187676
5.2625647 -0.05453714 2.2448044
-0.072684586 -0.015690336 0.00068754522
-0.072684579 -0.015690336 0.00068754388
5.3959036 0.041139189 2.1347287
0.11810908 0.10609442 0.078045532
0.072167456 0.22907929 0.099448457
5.4737849 0.13718671 2.0001943
0.11319882 0.11187169 0.072994582
0.056698944 0.22841312 0.094321996
5.8615589 0.24466442 1.9771976
-0.072684504 -0.015690349 0.00068752718
-0.072684497 -0.015690351 0.0006875259
5.2928724 0.062875777 2.2508452
0.11896291 0.10323992 0.083057821
0.017716523 0.1993861 0.076051831
5.5086775 0.16875774 2.174432
-0.072684444 -0.015690358 0.00068751519
-0.072684437 -0.01569036 0.00068751391
5.9024167 0.29067266 2.1514587
5.9934554 0.39818004 2.0200126
0.1191771 0.099129066 0.086067013
0.025378607 0.20494162 0.080105208
5.3915935 0.18189779 2.2874477
-0.072684363 -0.015690373 0.0006874972
-0.072684355 -0.015690373 0.00068749592
5.9320974 0.31856275 2.3356602
0.11130845 0.11444557 0.077974573
0.052770723 0.22089449 0.093302973
6.0342288 0.44103169 2.1972787
0.10990936 0.12237243 0.073948771
0.028770911 0.20076777 0.08114063
6.1362348 0.56035322 2.0669022
-0.072684281 -0.015690388 0.00068747922
-0.072684273 -0.015690388 0.00068747794
0.11312496 0.11188763 0.081994236
0.0056834607 0.19771132 0.073955551
-0.072684221 -0.015690397 0.00068746723
-0.072684214 -0.015690397 0.00068746594
0.012748907 0.20517576 0.07800062
-0.072684132 -0.015690412 0.00068744796
0.025450319 0.1913377 0.079129845
0.022672217 0.21353626 0.083067559
-0.072681636 -0.01569085 0.00068691827
-0.0090143066 0.18785942 0.069851659
-0.072681576 -0.015690859 0.00068690651
-0.00028705099 0.20003846 0.074902073
-0.072681494 -0.015690874 0.00068688876
0.018692721 0.20285416 0.081053697
0.0073750378 0.20559397 0.078955472
-0.072681405 -0.015690889 0.00068687112
-0.019146761 0.18678313 0.068770021
-0.072681352 -0.0156909 0.0006868593
-0.013377061 0.1917384 0.070808813
-0.072681263 -0.015690915 0.00068684161
0.005670452 0.19771402 0.075955339
-0.0060132863 0.19824836 0.074858055
-0.072681181 -0.01569093 0.00068682397
-0.02992709 0.18445227 0.06668523
-0.072681122 -0.015690941 0.00068681216
-0.023458257 0.1938256 0.070721991
-0.07268104 -0.015690956 0.00068679452
-0.007368308 0.19257744 0.072856896
-0.0174415 0.19466291 0.071770124
-0.072680958 -0.015690971 0.00068677688
-0.03946292 0.18146707 0.065611891
-0.072680898 -0.015690982 0.00068676512
-0.035295524 0.18486942 0.066640213
-0.072680816 -0.015690997 0.00068674749
-0.01879652 0.18899201 0.069768965
-0.028520141 0.19328652 0.069681183
-0.072680727 -0.015691014 0.00068672985
-0.04934831 0.17627282 0.06353958
-0.072680674 -0.015691023 0.00068671809
-0.04483135 0.18188423 0.065566882
-0.072680585 -0.01569104 0.00068670051
-0.029628096 0.18349765 0.06668935
-0.038354278 0.19125578 0.068603687
-0.072680503 -0.015691055 0.00068668288
-0.05888414 0.17328763 0.062466245
-0.072680444 -0.015691064 0.00068667118
-0.054665487 0.17985347 0.064489394
-0.072680362 -0.015691081 0.0006866536
-0.039454002 0.18146513 0.064611897
-0.049134605 0.18892492 0.066518903
-0.07268028 -0.015691096 0.00068663596
-0.067465536 0.17060077 0.061400246
-0.07268022 -0.015691107 0.00068662426
-0.063545197 0.17812108 0.063419238
-0.072680138 -0.015691122 0.00068660668
-0.049637709 0.17722535 0.06253542
-0.058320858 0.18814877 0.066444553
-0.072680049 -0.015691139 0.00068658916
-0.07635349 0.16887017 0.06133005
-0.072679996 -0.01569115 0.00068657746
-0.072424911 0.17638868 0.062349077
-0.072679907 -0.015691165 0.00068655988
-0.058918238 0.17012042 0.059471447
-0.06760139 0.18104385 0.063380577
-0.072679825 -0.015691182 0.00068654236
-0.084585316 0.16839235 0.061263036
-0.072679766 -0.015691191 0.00068653066
-0.081014544 0.17370361 0.062283043
-0.072679684 -0.015691208 0.00068651314
-0.067738451 0.17154977 0.058396146
-0.077435531 0.17901312 0.062303085
-0.072679594 -0.015691223 0.00068649562
-0.092518836 0.16696008 0.061200175
-0.072679542 -0.015691234 0.00068648398
-0.090200812 0.17292747 0.062208686
-0.072679453 -0.015691251 0.00068646646
-0.076975971 0.16761012 0.057326965
-0.085667357 0.1785353 0.062236067
-0.072679371 -0.015691265 0.000686449
-0.10110848 0.16427502 0.061134133
-0.072679311 -0.015691277 0.00068643736
-0.097274162 0.16546477 0.059163541
-0.072679229 -0.015691293 0.00068641984
-0.084901243 0.16617607 0.056264143
-0.094248757 0.17584845 0.061170068
-0.07267914 -0.015691308 0.00068640237
-0.10963862 0.16475165 0.061062958
-0.072679088 -0.015691319 0.00068639073
-0.1076189 0.17167351 0.062067319
-0.072678998 -0.015691336 0.00068637333
-0.094382182 0.16635369 0.056185368
-0.10343136 0.17507163 0.061095465
-0.07267569 -0.015691984 0.00068570586
-0.1172702 0.16236427 0.061003968
-0.6540572 0.69844067 0.251634
-0.072675638 -0.015691996 0.00068569445
-0.67078799 0.67443073 0.26953939
-0.69063729 0.65364552 0.28941342
-0.96248019 0.27091712 0.23985088
-0.11584708 0.17119505 0.062000033
-0.70636231 0.63309735 0.308321
-0.93894541 0.25215927 0.25807881
-0.072675548 -0.015692014 0.00068567734
-0.66579127 0.67904854 0.24957168
-0.86049193 0.21905379 0.25778428
-0.10200915 0.1639652 0.055126689
-0.68748999 0.66082841 0.2694259
-0.072675504 -0.015692024 0.00068566768
-0.11291593 0.17524996 0.061016951
-0.70513213 0.63968539 0.28931874
-0.91528851 0.23426528 0.22530442
-0.072675467 -0.015692031 0.00068566023
-0.71960443 0.6184811 0.30823779
-0.90148556 0.21980374 0.24444456
-0.12611513 0.16379897 0.062928557
-0.68062747 0.66287762 0.24747804
-0.57118952 0.12046483 0.16134052
-0.072675407 -0.015692042 0.00068564882
-0.70108163 0.64400309 0.26834375
-0.56412977 0.11434212 0.17341001
-0.71807593 0.62411463 0.28923973
-0.87562978 0.20155375 0.21268895
-0.12413017 0.16755377 0.060938176
-0.7331531 0.60482109 0.30915046
-0.86146915 0.18929943 0.23182812
-0.072675318 -0.015692061 0.0006856317
-0.69421089 0.64605057 0.24539593
-0.072675303 -0.015692065 0.00068562781
-0.11144246 0.16730703 0.056043014
-0.71808201 0.63135523 0.26822606
-0.12119903 0.1716087 0.059955087
-0.73071325 0.60758775 0.28816491
-0.85391676 0.17583135 0.20591335
-0.072675236 -0.015692078 0.00068561465
-0.74639523 0.59020489 0.30906725
-0.58624983 0.10523237 0.15024301
-0.13495182 0.16523188 0.063853189
-0.71342671 0.6337623 0.24625942
-0.58361262 0.099827044 0.16327481
-0.072675176 -0.015692089 0.00068560324
-0.72760892 0.61160535 0.2661826
-0.57811219 0.095316716 0.17632861
-0.74802011 0.59589607 0.28904304
-0.46158707 0.069598526 0.10233211
-0.13357997 0.17089915 0.063854426
-0.76244944 0.57785714 0.30995694
-0.072675101 -0.015692106 0.00068558799
-0.072675087 -0.015692107 0.00068558619
-0.72827113 0.61759323 0.24516574
-0.11912069 0.16175506 0.053989489
-0.74275172 0.59639066 0.26508474
-0.13069184 0.17178881 0.060876533
-0.75940466 0.57871306 0.28797969
-0.39132878 0.046421129 0.082951672
-0.072675005 -0.015692124 0.00068556913
-0.77414048 0.56163025 0.30988941
-0.43505701 0.051707219 0.10458261
-0.14535604 0.16827893 0.066762105
-0.74341393 0.60237849 0.24406792
-0.44561166 0.051612139 0.11849627
-0.072674945 -0.015692137 0.00068555778
-0.76131958 0.58535701 0.26695138
-0.60286516 0.077132918 0.18315709
-0.77234846 0.56314236 0.28790069
-0.0726749 -0.015692146 0.00068554818
-0.14216961 0.16821413 0.063788369
-0.78739089 0.54701585 0.31080616
-0.072674863 -0.015692154 0.00068554073
-0.75951934 0.58686721 0.24396273
-0.12800865 0.16002448 0.053919278
-0.77521789 0.56948799 0.26686502
-0.1380205 0.16844586 0.059822004
-0.78529227 0.54757166 0.28782162
-0.34863639 0.024091445 0.071342751
-0.072674774 -0.015692173 0.00068552367
-0.80064124 0.53240138 0.3117229
-0.36454335 0.024410076 0.083211489
-0.15760963 0.17389105 0.069651216
-0.77467036 0.57165432 0.24386486
-0.37316436 0.024906345 0.094139934
-0.072674714 -0.015692184 0.00068551232
-0.7888096 0.55266273 0.26578283
-0.42641866 0.030379694 0.1206922
-0.79919058 0.53170258 0.28773528
-0.072674669 -0.015692193 0.00068550278
-0.15075925 0.16552909 0.063722312
-0.81263071 0.517129 0.3116512
-0.072674632 -0.015692202 0.00068549532
-0.78766543 0.55292016 0.242791
-0.13654703 0.16050296 0.054848064
-0.80115676 0.53518307 0.26571211
-0.14967747 0.17214906 0.062719427
-0.81214267 0.51613373 0.28865618
-0.35395294 0.010909153 0.072322324
-0.072674543 -0.015692219 0.00068547833
-0.83090848 0.50514263 0.31452197
-0.36352018 0.011105311 0.082243465
-0.17448981 0.18750374 0.07648813
-0.80125707 0.5360949 0.2417088
-0.36550316 0.010524631 0.091228463
-0.072674483 -0.015692232 0.00068546698
-0.82038081 0.52289659 0.26757553
-0.36653179 0.010242273 0.1002208
-0.82508641 0.50056303 0.28857714
-0.072674438 -0.015692241 0.00068545743
-0.16608015 0.17752942 0.0695749
-0.84289789 0.48987028 0.31445026
-0.072674401 -0.015692249 0.00068544998
-0.8120451 0.51700294 0.24065375
-0.1460316 0.16068128 0.054769542
-0.83146703 0.50475913 0.26651633
-0.16072133 0.17393978 0.063625231
-0.84180504 0.48696432 0.29046357
-0.36464649 -0.0018540883 0.07425686
-0.072674312 -0.015692268 0.00068543298
-0.85178518 0.47137672 0.31440985
-0.37200654 -0.0020157313 0.084196828
-0.23330137 0.27090028 0.1108565
-0.82970983 0.50310415 0.24153288
-0.37429613 -0.001640185 0.094177641
-0.072674252 -0.015692279 0.00068542169
-0.84662634 0.489548 0.26741838
-0.36359149 -0.0024676141 0.098267481
-0.8560099 0.47205153 0.29137298
-0.072674207 -0.01569229 0.00068541209
-0.19500086 0.20940645 0.082280345
-0.86473727 0.45580786 0.31533074
-0.07267417 -0.015692297 0.0006854047
-0.84803063 0.48795253 0.24240878
-0.15402463 0.15608732 0.054711789
-0.85867524 0.47111395 0.26735184
-0.17332448 0.17734286 0.065515347
-0.87022287 0.45714051 0.29328239
-0.38138145 -0.015449313 0.078143135
-0.072674081 -0.015692316 0.0006853877
-0.88301516 0.44382149 0.31820145
-0.39825931 -0.01542545 0.092004456
-0.85978127 0.46856397 0.24234635
-0.40150332 -0.015348234 0.10197793
-0.87508726 0.45655894 0.26824242
-0.37746313 -0.015167836 0.10217577
-0.88130921 0.43900302 0.29222316
-0.072673976 -0.015692336 0.00068536686
-0.88843429 0.42431223 0.31719142
-0.87338132 0.4517405 0.24226412
-0.16722441 0.16139935 0.056593601
-0.88713616 0.4381249 0.26817584
-0.54807258 0.79770821 0.28333282
-0.89647669 0.42379364 0.2941252
-0.35693306 -0.029835345 0.072369933
-0.07267385 -0.015692363 0.00068534253
-0.90013361 0.40808716 0.31812379
-0.37792695 -0.03005035 0.086197756
-0.6065377 0.7659744 0.31990856
-0.89296317 0.4372468 0.24412848
-0.37925386 -0.029378248 0.095185935
-0.07267379 -0.015692376 0.00068533124
-0.9045108 0.42327335 0.27005905
-0.38278794 -0.028348353 0.10415529
-0.91385967 0.40894386 0.29700837
-0.072673745 -0.015692385 0.00068532169
-0.59403282 0.76665729 0.30100977
-0.90650725 0.38827968 0.3171064
-0.60927385 0.73470086 0.31194127
-0.90064901 0.41493365 0.24310471
-0.55224502 0.78478348 0.26132065
-0.92158717 0.4074674 0.2719464
-0.57839286 0.76411182 0.27814239
-0.93375629 0.39540824 0.30086854
-0.35083944 -0.042602934 0.071442731
-0.59987932 0.73860669 0.29401112
-0.91443187 0.37008262 0.31607333
-0.36231554 -0.04300344 0.081349187
-0.62347043 0.71978629 0.31185073
-0.92369896 0.40145564 0.24593872
-0.36585784 -0.041971762 0.09131851
-0.56988502 0.77087921 0.25919989
-0.95092565 0.39727533 0.27772287
-0.36143339 -0.039514992 0.097350821
-0.59352738 0.74889535 0.27604461
-0.94485074 0.37727249 0.30080926
-0.072673514 -0.015692433 0.00068527658
-0.61717796 0.72691327 0.29388931
-0.91889662 0.35087177 0.31507057
-0.63609946 0.70325756 0.30977592
-0.94047707 0.38469514 0.24783024
-0.58812982 0.7588858 0.25807077
-0.9479087 0.37096065 0.27379429
-0.61022121 0.7352913 0.27493113
-0.95816892 0.35949814 0.3027311
-0.33774996 -0.054240197 0.068571121
-0.63417834 0.71426541 0.29377165
-0.92682952 0.33267659 0.31503746
-0.34730896 -0.054045822 0.077492297
-0.65089262 0.69025201 0.30967709
-0.95569581 0.36632234 0.24873745
-0.35179746 -0.053314254 0.086454302
-0.60547978 0.74402893 0.25695407
-0.96468687 0.35420015 0.27568579
-0.34737304 -0.050857492 0.09248662
-0.62817597 0.72234517 0.27480614
-0.97872174 0.34470958 0.30658808
-0.072673284 -0.015692482 0.00068523153
-0.64524806 0.69612432 0.29071254
-0.93350971 0.31382525 0.31501582
-0.66382825 0.67467946 0.30859807
-0.97313011 0.34830916 0.25062573
-0.61971116 0.72594732 0.25386882
-0.99439138 0.34180269 0.28246319
-0.64205778 0.70647258 0.27271983
-0.99424708 0.32729307 0.30849108
-0.32908309 -0.065160096 0.066661805
-0.65913808 0.68025357 0.28962618
-0.93671346 0.2939564 0.31302461
-0.33834377 -0.065920189 0.075587131
-0.6786297 0.66167557 0.3094992
-0.98931152 0.32963979 0.25252557
-0.34121346 -0.063639261 0.083559699
-0.63640499 0.71234322 0.25275531
-1.0105728 0.32313332 0.284363
-0.33678079 -0.061184276 0.08859206
-0.65504462 0.68773657 0.27064601
-1.0003306 0.30653283 0.30847776
-0.072673053 -0.015692532 0.00068518653
-0.67488575 0.66694963 0.28952
-0.56446004 0.14882983 0.17734575
-0.69156528 0.64610314 0.30842021
-1.0029793 0.30965644 0.2534484
-0.98453158 0.29036486 0.27363539
-0.96069849 0.27065241 0.29186746
-0.31659025 -0.07488846 0.06378188
-0.55457526 0.1340868 0.17245321
-0.33189228 -0.076480508 0.074658945
-0.33541813 -0.075452387 0.082628332
-0.33128378 -0.072042942 0.087656535
-0.072670221 -0.015693147 0.00068464316
-0.31109902 -0.085745558 0.063845605
-0.31748816 -0.085612431 0.071792975
-0.32225847 -0.083929949 0.078750908
-0.32224843 -0.080757603 0.084745578
-0.072669983 -0.015693197 0.00068459898
-0.33142948 -0.10464669 0.069711663
-0.33141941 -0.10147435 0.075706325
-0.31066057 -0.090794951 0.075858511
-0.31322372 -0.089470275 0.082835279
-0.072669752 -0.015693249 0.00068455481
-0.32181647 -0.11526652 0.068809636
-0.33615586 -0.116562 0.07869406
-0.33644408 -0.1124352 0.084684581
-0.30640623 -0.097825147 0.080906153
-0.072669521 -0.015693301 0.00068451074
-0.31823659 -0.12672007 0.068859369
-0.32940614 -0.12807681 0.07777001
-0.33543745 -0.12573643 0.085716411
-0.34434032 -0.12428926 0.094640769
-0.072669283 -0.015693355 0.00068446674
-0.3342205 -0.14949676 0.075768143
-0.34024355 -0.14715815 0.082714587
-0.34179276 -0.14237344 0.089693576
-0.33950773 -0.13639896 0.09470199
-0.072669052 -0.015693408 0.00068442279
-0.35827374 -0.18002547 0.084624201
-0.37453026 -0.18191583 0.095493913
-0.36836794 -0.17158633 0.10052657
-0.34651914 -0.15428874 0.098675959
-0.072668813 -0.015693462 0.0006843789
-0.395551 -0.22199981 0.098391682
-0.38615933 -0.20856984 0.10244544
-0.39565882 -0.20521374 0.11136149
-0.3811124 -0.18809021 0.11245109
-0.072668582 -0.015693514 0.00068433507
-0.43296385 -0.27029401 0.11416929
-0.072668433 -0.015693547 0.00068430766
-0.41662645 -0.23896009 0.12224872
-0.41583294 -0.22821331 0.12723638
-0.072668344 -0.015693568 0.0006842913
-0.44639859 -0.30798069 0.12312552
-0.46164939 -0.30640924 0.13499743
-0.44088304 -0.27896863 0.13411997
-0.43392906 -0.26106647 0.13714567
-0.072668113 -0.015693622 0.00068424759
-0.41928273 -0.31419042 0.11935982
-0.43098938 -0.31047651 0.12825704
-0.43205345 -0.29716289 0.13422489
-0.4585517 -0.30328047 0.15001783
-0.072667874 -0.015693676 0.00068420393
-0.40407044 -0.32934195 0.11951196
-0.42157972 -0.33057615 0.13037018
-0.42712593 -0.31970689 0.13730544
-0.43236557 -0.30979383 0.14324489
-0.072667643 -0.01569373 0.00068416033
-0.4088988 -0.36434725 0.12653431
-0.40863413 -0.34853157 0.1305086
-0.41932681 -0.34135765 0.13940805
-0.42162713 -0.32739145 0.14336447
-0.072663441 -0.015694728 0.00068339682
-0.24163561 -0.90245432 0.24786717
-0.41189158 -0.40191439 0.1355744
-0.27534497 -0.92552841 0.25563031
-0.40898579 -0.38109115 0.1375616
-0.072663277 -0.015694769 0.00068336684
-0.40960774 -0.36241388 0.14052354
-0.6001128 -1.803339 0.50651389
-0.41897166 -0.3527379 0.14742947
-0.094430208 -0.14806612 0.036739245
-0.072663203 -0.015694786 0.00068335433
-0.25481603 -0.92749768 0.25480294
-0.042689081 -0.12565091 0.027125835
-0.072663158 -0.015694799 0.00068334566
-0.072663151 -0.015694801 0.00068334432
-0.56325459 -1.827436 0.50786024
-0.1794344 -0.75851852 0.2061238
-0.19555366 -0.17017502 0.051945142
-0.095324971 -0.14520277 0.036726762
-0.41814193 -0.42581335 0.14856547
-0.26422474 -0.92416108 0.25271925
-0.41319174 -0.39807355 0.14855722
-0.072663009 -0.015694834 0.00068331911
-0.41248488 -0.3768943 0.1495256
-0.091937959 -0.1797269 0.045816034
-0.072662964 -0.015694845 0.00068331196
-0.17133293 -0.65971953 0.17801483
-0.041173246 -0.11366557 0.024116974
-0.07266292 -0.015694857 0.00068330322
-0.072662912 -0.015694859 0.00068330194
-0.27492931 -0.92333359 0.24862927
-0.095245406 -0.24668773 0.063907757
-0.19976965 -0.19032979 0.056946125
-0.07266283 -0.015694879 0.00068328739
-0.20319472 -0.18614882 0.059910584
-0.094063751 -0.14586075 0.035738219
-0.21080363 -0.18536663 0.063846603
-0.072662771 -0.015694894 0.0006832768
-0.41415179 -0.41195911 0.15657401
-0.072662726 -0.015694903 0.00068326964
-0.094711274 -0.22140643 0.056867167
-0.17914356 -0.77623439 0.20715728
-0.093204126 -0.13512817 0.032726184
-0.072662622 -0.015694931 0.00068325037
-0.17794715 -0.17620112 0.051100776
-0.19507326 -0.19199641 0.058987774
-0.09228719 -0.18193601 0.0448169
-0.19681174 -0.18310615 0.059957746
-0.09063077 -0.13328053 0.031744067
-0.20183916 -0.18047807 0.061911713
-0.072662503 -0.015694961 0.00068322924
-0.072662488 -0.015694963 0.00068322732
-0.092129551 -0.21956059 0.054885034
-0.072662413 -0.015694983 0.00068321341
-0.17965767 -0.19766819 0.056124728
-0.18300672 -0.19032905 0.057084166
-0.18473695 -0.18144055 0.057054177
-0.090369828 -0.1813412 0.043831542
-0.1956348 -0.18692052 0.061974183
-0.072662264 -0.015695021 0.00068318698
-0.072662249 -0.015695022 0.00068318512
-0.14781633 -0.15843669 0.04331737
-0.16668858 -0.18210295 0.053203948
-0.16775441 -0.17196345 0.052177195
-0.17703344 -0.17589408 0.056107774
-1.0138206 -1.8957192 0.56326652
-0.072661981 -0.015695089 0.00068313768
-0.84405386 -1.6491789 0.48422748
-0.17865673 -0.22455668 0.065180652
-0.19050075 -0.23033676 0.069093354
-0.072661802 -0.015695134 0.00068310613
-0.7845335 -1.618059 0.47166261
-0.87468994 -1.6858819 0.51004052
-0.072661713 -0.015695157 0.00068309036
0.55954701 -0.9023 0.28547239
-0.072661653 -0.015695171 0.0006830804
0.59724426 -0.87261087 0.30773145
-0.18707304 -0.24810672 0.073153086
0.58803636 -0.89966869 0.28870267
-0.18206508 -0.22037932 0.066145115
-0.072661534 -0.015695201 0.00068305939
-0.12882964 -0.15879732 0.041474309
-0.072661504 -0.015695209 0.00068305357
0.60943735 -0.84785891 0.30478805
0.60517257 -0.88070112 0.28681031
0.64486164 -0.97412229 0.28530252
-0.072661385 -0.015695238 0.0006830332
-0.75726652 -1.7330087 0.50809133
0.030657021 -0.13617487 0.045749351
-0.13084979 -0.14895618 0.040440176
0.62259889 -0.86268634 0.28592202
-0.072661325 -0.015695255 0.00068302208
0.65991807 -0.94847536 0.28238112
-0.67296666 -1.7915277 0.50788963
0.63806951 -0.96170795 0.25522339
-0.72269166 -1.7599061 0.51142383
-0.072661236 -0.015695276 0.00068300695
-0.76357454 -1.6993672 0.5059796
0.64496833 -0.85045606 0.28608477
-0.81520021 -1.6683439 0.50849915
-0.051584322 -0.11061713 0.028025463
0.66879505 -0.91639137 0.27639735
-0.63042551 -1.8002371 0.50725555
-0.072661154 -0.015695296 0.00068299251
0.66331053 -0.94858438 0.25440821
-0.68379736 -1.7770848 0.51177478
-0.072661117 -0.015695306 0.00068298599
-0.7436958 -1.7632934 0.51925677
0.040985692 -0.14238033 0.044845372
-0.77783233 -1.6839173 0.50583458
0.69896275 -0.90904886 0.27863312
-0.58169162 -1.785035 0.50063008
-0.051277641 -0.1115734 0.027029609
0.66790056 -0.90946317 0.24737661
-0.64797801 -1.8046364 0.51611876
-0.054721031 -0.11056298 0.024999354
-0.072660998 -0.015695337 0.00068296504
-0.70136046 -1.7678934 0.51461351
-0.072660975 -0.015695343 0.00068296108
0.03058717 -0.12574603 0.039730038
-0.75187141 -1.7302573 0.5121305
-0.046803672 -0.10912736 0.027062155
0.69575447 -0.86503965 0.26952851
-0.54317987 -1.8044156 0.50398177
-0.072660916 -0.015695358 0.00068295066
0.70271307 -0.90695065 0.25065923
-0.59929544 -1.7925979 0.50849837
0.70100218 -0.77209318 0.30540881
-0.66113746 -1.7825701 0.51297092
-0.072660848 -0.015695374 0.0006829389
-0.71895832 -1.7618691 0.51445758
0.038358964 -0.13380261 0.037808243
-0.072660819 -0.015695384 0.00068293308
-0.044493176 -0.11992128 0.02910031
0.040463571 -0.14048742 0.03583733
-0.56631213 -1.8346388 0.51684475
-0.050016411 -0.11223139 0.02604107
0.71901685 -0.75598562 0.30552879
-0.62085474 -1.7940851 0.51132315
-0.072660737 -0.015695402 0.00068291929
0.042859491 -0.12818781 0.04183555
-0.68334478 -1.7853118 0.5147925
0.045918535 -0.13457426 0.03987198
-0.26492381 -0.91181678 0.25068974
0.026366388 -0.11872295 0.030682439
-0.072660662 -0.015695421 0.00068290695
0.72739226 -0.73242688 0.30255607
-0.57852787 -1.7986835 0.50767994
-0.050365865 -0.11444045 0.02504202
-0.07266061 -0.015695436 0.00068289711
-0.64413565 -1.8034486 0.51314759
-0.072660588 -0.015695442 0.00068289315
-0.043633454 -0.10918873 0.026088271
-0.045005247 -0.11485602 0.026086967
0.74944693 -0.71923864 0.30471462
-0.072660498 -0.015695464 0.00068287749
0.75879949 -0.75202411 0.2848489
0.043020055 -0.1218733 0.036825482
-0.072660431 -0.015695481 0.00068286579
0.76805043 -0.70503932 0.3058424
0.7861557 -0.74241418 0.28805703
-0.072659336 -0.015695762 0.00068267615
0.78171688 -0.68505371 0.30491912
0.80452663 -0.72409695 0.28817558
0.82854593 -0.76696157 0.26944864
0.054668501 -0.12557296 0.034927096
0.79692793 -0.66667932 0.30501214
0.82010365 -0.70351708 0.28726763
0.85008007 -0.74870622 0.26959398
-0.072660737 -0.015693462 0.00068200321
0.81743169 -0.65188038 0.30715519
0.83972067 -0.68585652 0.28839833
0.86631328 -0.72687352 0.2686893
0.86242872 -0.7439248 0.24068639
0.82830429 -0.62963217 0.30520552
0.85934609 -0.66819775 0.28852898
0.88505191 -0.70635307 0.26780757
0.88491738 -0.72537106 0.24083909
0.84351528 -0.61125773 0.30529854
0.87896311 -0.65053719 0.28965959
0.90378243 -0.68583089 0.2679258
0.90865874 -0.70747352 0.2410033
0.85592252 -0.59061664 0.30536443
0.90108567 -0.63418901 0.29081321
0.92222285 -0.66435605 0.26703995
0.93834901 -0.69189864 0.2432207
0.87488341 -0.5742088 0.30649188
0.91356063 -0.61038786 0.28987408
0.93940222 -0.6422233 0.26714256
0.96649647 -0.67471492 0.24442255
0.88979614 -0.5548799 0.30658072
0.93567497 -0.59403783 0.29202768
0.95658159 -0.62009054 0.26724517
0.99309289 -0.65592057 0.24560875
0.91094774 -0.53882658 0.30972695
0.95440537 -0.57351571 0.29214594
0.97751921 -0.59992623 0.26738226
1.0209339 -0.63778067 0.24780641
0.92651653 -0.51824486 0.30981901
0.96717048 -0.55066729 0.29221088
0.99785203 -0.57785118 0.26851103
1.0478882 -0.61677909 0.24899167
0.93421936 -0.49593535 0.30884314
0.99184978 -0.53246784 0.29438236
1.0172385 -0.55607623 0.26863247
1.0601326 -0.58886355 0.24704331
0.95853263 -0.47994134 0.31201553
1.0046148 -0.50961953 0.29444733
1.0388241 -0.53465736 0.26977274
1.0867887 -0.56690758 0.24822444
0.9740932 -0.45935795 0.31310758
1.0239931 -0.48784271 0.29556873
1.0626085 -0.51359457 0.2719318
1.0999793 -0.538692 0.2472834
0.99215096 -0.44008505 0.31522259
1.0364599 -0.46403989 0.29562953
1.0813903 -0.4899089 0.27304491
1.1119173 -0.50982022 0.24633086
1.0155693 -0.42122772 0.31838253
1.053341 -0.4409526 0.29572803
1.1023792 -0.46658108 0.2741769
1.1307669 -0.48297462 0.24643895
1.032076 -0.40034422 0.3204819
1.0655096 -0.41619533 0.29578471
1.1252769 -0.44265661 0.27532354
1.1439575 -0.45475903 0.24549791
1.0495455 -0.37916419 0.32158861
1.075479 -0.39108193 0.2948226
1.1447148 -0.41771829 0.27643988
1.1640515 -0.42856783 0.24661745
1.069214 -0.35834017 0.32371417
1.0920453 -0.36703673 0.29691687
1.1676042 -0.39379206 0.27858648
1.1803956 -0.40040997 0.24670255
1.0860785 -0.33524942 0.32581258
1.0995177 -0.3406128 0.2949318
1.1817412 -0.36527637 0.27865279
1.197686 -0.37195206 0.24779499
1.1145509 -0.31585142 0.33101332
1.116084 -0.31656757 0.29702607
1.2084403 -0.34015512 0.28182879
1.2193904 -0.34420976 0.24892506
1.1333244 -0.292164 0.33312646
1.1358118 -0.29258189 0.29914647
1.2316794 -0.31401989 0.2849744
1.243294 -0.31682351 0.25107393
1.1520896 -0.26847482 0.33623952
1.1508355 -0.26692778 0.3002252
1.2624863 -0.28865799 0.28918386
1.2678536 -0.28818443 0.25322604
1.1771698 -0.24490294 0.3404049
1.1768701 -0.24305759 0.30439794
1.287046 -0.26001897 0.29133597
1.2864562 -0.25722095 0.25432485
1.1965953 -0.21996272 0.34352347
1.1969602 -0.2168664 0.30651972
1.3125559 -0.23108174 0.29449794
1.3236418 -0.22881649 0.25958413
6.6206012 2.5623925 1.7173986
1.2245306 -0.19549412 0.34871095
6.6197362 2.7364409 1.5680788
1.2189465 -0.190075 0.30965391
6.1707053 2.7176163 1.3213995
1.351638 -0.202077 0.30076936
-0.072653025 -0.015695319 0.0006808727
3.2414563 1.5204523 0.63032705
1.3495054 -0.19767015 0.26274264
0.11999142 0.24803667 0.062806293
6.6701965 2.7518904 1.735474
1.2543747 -0.17042883 0.35391307
0.098029315 0.23800299 0.056642633
6.1812711 2.72367 1.4724815
1.2459869 -0.16274302 0.31482893
-0.072652936 -0.015695341 0.0006808599
-0.072652921 -0.015695345 0.00068085786
1.3689796 -0.17045562 0.30285665
0.1201542 0.24076229 0.06482055
3.1278722 1.5624193 0.61531562
1.3725737 -0.16425882 0.26487407
-0.072652876 -0.015695358 0.00068085134
6.1652713 2.7077482 1.6113828
1.4679126 -0.16107856 0.40865999
-0.072652832 -0.015695369 0.00068084506
1.1857489 -0.12716025 0.29826868
0.062857874 0.21334612 0.046395689
1.1357131 -0.11680251 0.25283602
-0.07265278 -0.01569538 0.0006808386
3.0448482 1.6171029 0.60553396
1.1294912 -0.1094657 0.21877053
0.091936812 0.23400751 0.057599451
6.0419841 2.8178825 1.5861707
1.1158819 -0.10178199 0.31364807
0.07313633 0.22391434 0.051461976
-0.072652705 -0.015695401 0.00068082806
1.1244888 -0.095035672 0.28270608
-0.07265269 -0.015695404 0.00068082579
1.1264989 -0.08722125 0.24870768
0.093360603 0.22607523 0.058625236
3.8795648 2.1804571 0.77643043
1.1158545 -0.079166993 0.21560445
-0.072652631 -0.015695419 0.00068081729
5.9266143 2.9294524 1.5630214
1.5568755 -0.097568028 0.4282825
2.9881208 1.5842212 0.73512888
1.1486741 -0.068600424 0.2868591
0.044390719 0.20546542 0.04325714
-0.072652556 -0.01569544 0.00068080676
1.4148084 -0.069150671 0.30805615
-0.072652534 -0.015695443 0.00068080454
1.1829919 -0.052896261 0.22711234
0.067998268 0.2202172 0.052426137
5.1898828 -0.16605011 1.3744059
0.052760299 0.21543701 0.04830873
2.9435396 1.6498902 0.72964507
1.1779218 -0.041626185 0.29205292
-0.072652444 -0.015695466 0.0006807918
-0.072652429 -0.015695469 0.00068078982
1.3839134 -0.033791024 0.29973862
0.069779888 0.21449216 0.053450976
0.11232897 0.098854698 0.038005676
1.173173 -0.021404261 0.22397564
-0.072652385 -0.015695482 0.00068078336
-0.07265237 -0.015695486 0.00068078132
5.2930841 -0.050933912 1.3960547
1.2002578 -0.012625828 0.29618618
-0.018135885 0.10097131 0.022925187
0.11932673 0.103159 0.043055974
1.352354 0.00031768694 0.29241782
-0.072652288 -0.015695505 0.00068077061
-0.072652273 -0.015695509 0.00068076863
1.2031362 0.0099844197 0.2291676
0.048883211 0.21108197 0.048284419
5.567544 3.231832 1.4955237
5.4001632 0.068537362 1.4177282
0.024424456 0.18559577 0.041127421
-0.072652213 -0.015695525 0.00068076013
1.2254488 0.01727128 0.30134138
-0.072652198 -0.015695529 0.00068075792
1.3160307 0.032933004 0.28406036
0.05001694 0.20410235 0.048306089
0.11321532 0.11275604 0.038988452
2.0637958 0.078468822 0.38215181
-0.072652139 -0.015695544 0.00068074948
-0.072652124 -0.015695548 0.00068074744
5.517776 0.19445701 1.4424771
0.11809251 0.10698563 0.048039194
1.251296 0.048421148 0.30649981
0.015177972 0.19842111 0.041028466
0.11955692 0.11580755 0.044035546
-0.072652049 -0.015695566 0.00068073749
-0.072652049 -0.015695568 0.00068073679
-0.072652034 -0.015695572 0.00068073481
1.9749837 0.12502678 0.36533645
-0.0070306659 0.12227917 0.028979333
0.115145 0.10293423 0.051022135
5.9362473 0.34140489 1.5456735
0.02160389 0.20462902 0.04307057
-0.072651967 -0.015695587 0.00068072631
1.2727373 0.080284938 0.31062061
-0.072651953 -0.015695592 0.0006807241
1.356177 0.10208722 0.29126975
0.035418831 0.20057842 0.046191797
0.097125717 0.11400443 0.036853425
1.9313145 0.17106587 0.35789472
-0.072651893 -0.015695607 0.00068071566
-0.072651878 -0.015695611 0.00068071368
6.0440245 0.48205715 1.5693153
0.11064416 0.11408237 0.046965163
1.2979878 0.11334372 0.31577075
0.0021309003 0.19328657 0.038929801
0.11341259 0.12541163 0.043967877
1.3185414 0.13219696 0.28290585
-0.072651803 -0.015695632 0.00068070303
-0.072651789 -0.015695635 0.00068070105
1.3321074 0.14991821 0.25098532
0.019329136 0.20182686 0.044056766
0.10323923 0.10758137 0.047915585
1.3485351 0.13144669 0.3641575
0.0069462187 0.19794337 0.040961362
-0.072651722 -0.01569565 0.00068069261
1.3188323 0.14711636 0.31988326
-0.072651707 -0.015695654 0.0006806904
1.3115695 0.16458745 0.28179115
0.021775151 0.19735281 0.044084836
0.093188561 0.12325068 0.03680459
1.3387793 0.18553425 0.25197753
-0.072651647 -0.015695671 0.00068068202
-0.072651632 -0.015695674 0.00068068004
1.3307987 0.16150305 0.35895801
0.10480636 0.12273023 0.045901671
-0.072651587 -0.015695686 0.00068067433
-0.010924444 0.18815377 0.037831102
0.10500154 0.13221182 0.043886457
1.8388238 0.27849668 0.38894331
-0.072651558 -0.015695695 0.00068066939
-0.072651543 -0.015695699 0.00068066741
1.7975712 0.29784679 0.33456692
0.0046797111 0.19513944 0.04094759
0.10376774 0.11927547 0.048899304
-0.072651498 -0.015695708 0.0006806617
-0.0087767271 0.18463424 0.037855025
-0.072651476 -0.015695713 0.00068065902
1.8577732 0.30036524 0.44206297
-0.072651461 -0.015695717 0.00068065681
1.7842712 0.31587821 0.37742692
0.0064183045 0.18624914 0.039977591
0.21748416 0.2544328 0.068599336
1.7382383 0.33373851 0.32401374
-0.072651401 -0.015695734 0.00068064843
-0.072651386 -0.015695738 0.00068064645
6.6342297 1.1312493 1.7080437
0.098005898 0.13108152 0.045830794
1.8129873 0.33661735 0.4326292
-0.023434486 0.17794859 0.035745822
0.22827491 0.25993565 0.076678917
1.7581749 0.35589829 0.37314087
-0.072651312 -0.015695758 0.00068063586
-0.072651297 -0.015695762 0.00068063388
6.8365602 1.4910423 1.2390608
-0.0077112257 0.19125769 0.038852118
0.09119758 0.1226716 0.046789516
6.7917004 1.313687 1.7460221
-0.016241582 0.19173449 0.038780898
-0.07265123 -0.015695777 0.0006806255
1.768508 0.37191325 0.42219964
-0.072651215 -0.015695781 0.00068062329
6.7155714 1.5292945 1.3840005
-0.0036546218 0.18833475 0.038890738
0.20156494 0.26516807 0.067448996
6.512465 1.5906794 1.1852095
-0.072651155 -0.015695797 0.0006806149
-0.07265114 -0.015695801 0.00068061292
1.7971809 0.38948709 0.47540712
0.21327767 0.2542133 0.079565406
6.6148243 1.5529413 1.5341331
-0.033924807 0.17466526 0.034665011
0.20176254 0.26106068 0.072458059
6.4017954 1.6195543 1.3232507
-0.072651066 -0.015695821 0.00068060239
-0.072651051 -0.015695825 0.00068060041
6.203618 1.6783324 1.1345054
-0.020221269 0.18105251 0.036766838
0.21794915 0.252552 0.084607057
7.1372032 1.7112163 1.8341739
-0.028393781 0.18373656 0.036694668
-0.072650984 -0.01569584 0.00068059209
6.3117156 1.6360322 1.4674839
-0.072650969 -0.015695846 0.00068058987
7.4697633 2.0789695 1.5462577
-0.015806828 0.18033682 0.036804508
0.18337902 0.27309948 0.06628491
7.3823924 2.1922705 1.3543301
-0.072650909 -0.015695861 0.00068058155
-0.072650895 -0.015695864 0.00068057957
6.2554164 1.6483921 1.6100028
0.18897246 0.25498053 0.075363375
7.4432497 2.1123421 1.7299869
-0.04311109 0.17388925 0.034590561
0.19679435 0.28361347 0.074377283
3.2211645 0.98417598 0.67811143
-0.07265082 -0.015695885 0.00068056904
-0.072650805 -0.015695889 0.00068056706
3.1505523 1.0245806 0.58845443
-0.029697593 0.18122917 0.035688277
0.18817256 0.24740958 0.078370251
7.4235182 2.1341927 1.9087921
-0.038474951 0.18582393 0.036607776
-0.072650738 -0.015695905 0.00068055873
3.2086926 0.99529308 0.75799185
-0.072650723 -0.015695909 0.00068055652
3.1468146 1.0447009 0.66539085
-0.025581453 0.18146797 0.035721801
0.14352158 0.25328147 0.059990864
3.0418675 1.0743607 0.57246935
-0.072650664 -0.015695924 0.0006805482
-0.072650649 -0.015695928 0.00068054628
7.271986 2.2679296 1.8723049
0.1884699 0.27998114 0.078315161
3.1241243 1.0484116 0.74019986
-0.052186523 0.17943841 0.03550588
0.1546867 0.26098809 0.066069573
3.0549517 1.0976435 0.64953905
-0.072650574 -0.015695948 0.00068053574
-0.072650559 -0.015695952 0.00068053376
3.0647566 1.1685132 0.58149236
-0.039480478 0.18236209 0.035605531
0.18088636 0.26399502 0.079280868
7.1327095 2.3992283 1.8399231
-0.047601689 0.18820965 0.03652823
-0.072650492 -0.015695969 0.0006805255
3.0388994 1.1002772 0.72240472
-0.072650477 -0.015695972 0.00068052328
3.0615888 1.1835556 0.65444237
-0.035415635 0.1794374 0.034644186
0.11778499 0.24521971 0.055792619
6.736917 2.7476678 1.2700224
-0.072650418 -0.015695989 0.00068051502
-0.072650403 -0.015695993 0.00068051304
6.4585457 2.3344808 1.67147
0.14732495 0.25765228 0.069014825
3.0760207 1.1957479 0.73454285
-0.061586253 0.16601025 0.032451909
0.1241266 0.24827121 0.060839716
6.6641803 2.7454779 1.4164315
-0.072650328 -0.015696013 0.00068050256
-0.072650313 -0.015696017 0.00068050064
6.190618 2.7043574 1.178589
-0.049365953 0.17716806 0.033533044
0.157186 0.26285154 0.074087158
-0.057495411 0.18301737 0.035455707
-0.072650246 -0.015696032 0.00068049232
-0.072650231 -0.015696038 0.00068049016
-0.045599401 0.17519782 0.032567553
0.084549092 0.22432823 0.049555086
-0.072650172 -0.015696052 0.0006804819
-0.06982635 0.16553433 0.033384766
-0.072649166 -0.015696317 0.00068034796
-0.058142167 0.18176252 0.034452382
-0.06703037 0.18003212 0.034382101
-0.072649077 -0.015696341 0.00068033568
-0.05442692 0.17662881 0.032492023
-0.072649017 -0.015696358 0.00068032753
-0.079011716 0.16475807 0.033310167
-0.07264892 -0.015696382 0.00068031531
-0.067081451 0.17686857 0.033387195
-0.075918362 0.17830163 0.034311783
-0.072648831 -0.015696406 0.00068030308
-0.06396281 0.1736438 0.03141854
-0.072648764 -0.015696423 0.00068029494
-0.087541856 0.16523485 0.033238903
-0.072648674 -0.015696447 0.00068028277
-0.076370336 0.16976561 0.031322993
-0.08485765 0.17340767 0.033246599
-0.072648585 -0.015696473 0.00068027055
-0.07234855 0.16367567 0.028366819
-0.072648518 -0.01569649 0.00068026246
-0.095177114 0.16284822 0.033180084
-0.072648428 -0.015696514 0.00068025029
-0.08514747 0.17436032 0.032242455
-0.093089499 0.17292999 0.033179477
-0.072648332 -0.015696539 0.00068023818
-0.081176981 0.16510689 0.028291404
-0.072648272 -0.015696555 0.00068023009
-0.10370725 0.16332501 0.033108812
-0.072648183 -0.01569658 0.00068021793
-0.093183622 0.1666012 0.030189741
-0.10227577 0.17215396 0.033105012
-0.072648086 -0.015696606 0.00068020582
-0.088863537 0.15955679 0.027237713
-0.072648026 -0.015696621 0.00068019779
-0.11140206 0.15777667 0.033055082
-0.072647929 -0.015696647 0.00068018568
-0.10177332 0.16391626 0.030123567
-0.11056717 0.16851456 0.033042982
-0.07264784 -0.015696671 0.00068017363
-0.097632423 0.16414975 0.027157202
-0.07264778 -0.015696688 0.00068016554
-0.11903732 0.15539005 0.032996256
-0.072647683 -0.015696712 0.00068015349
-0.11000516 0.16343856 0.030056445
-0.11909731 0.16899133 0.032971714
-0.072647594 -0.015696738 0.00068014144
-0.10652041 0.16241927 0.027086878
-0.072647534 -0.015696755 0.00068013347
-0.12691955 0.15712136 0.033928148
-0.072647437 -0.015696779 0.00068012142
-0.11889315 0.16170809 0.029986121
-0.12709041 0.16439745 0.03291383
-0.072647348 -0.015696805 0.00068010943
-0.11445396 0.16098711 0.027023902
-0.072647281 -0.015696822 0.00068010145
-0.13455482 0.15473475 0.033869322
-0.072647192 -0.015696846 0.00068008946
-0.1268267 0.16027594 0.029923143
-0.13502397 0.16296531 0.03285085
-0.072647095 -0.015696872 0.00068007747
-0.1224388 0.15639147 0.025966056
-0.072647035 -0.015696889 0.0006800695
-0.1406986 0.14757581 0.033831228
-0.072646946 -0.015696913 0.00068005756
-0.13415541 0.15693308 0.028868495
-0.1439202 0.1612366 0.033780489
-0.072646849 -0.015696939 0.00068004563
-0.13001451 0.15716657 0.02590213
-0.072646789 -0.015696956 0.00068003766
-0.15048972 0.1487105 0.034748413
-0.072646692 -0.01569698 0.00068002578
-0.14149235 0.15359199 0.028813809
-0.15125716 0.15789552 0.033725802
-0.072646603 -0.015697006 0.00068001385
-0.1383059 0.15352716 0.025840096
-0.072646543 -0.015697023 0.00068000593
-0.16087744 0.1517541 0.035657305
-0.072646447 -0.015697049 0.00067999406
-0.14882931 0.15025091 0.028759124
-0.16230102 0.15968636 0.034631491
-0.072646357 -0.015697073 0.00067998219
-0.14563461 0.15018432 0.024785446
-0.07264629 -0.01569709 0.00067997433
-0.16917709 0.14811647 0.036595233
-0.072641261 -0.015698502 0.00067935558
-0.16171753 0.15460549 0.029644145
-0.17304163 0.16052139 0.035540421
-0.072641164 -0.01569853 0.0006793444
-0.86889941 0.47769457 0.1082387
-0.1569718 0.15292829 0.025686124
-0.88056672 0.45739767 0.13417917
-0.072641104 -0.015698547 0.00067933701
-0.89755148 0.44068161 0.16106947
-0.92546958 0.43208155 0.18985523
-0.18267842 0.15438353 0.039471839
-0.88345402 0.46057293 0.10814876
-0.072641008 -0.015698574 0.00067932589
-0.89136314 0.43830755 0.13412373
-0.1727614 0.15639633 0.030549807
-0.072640955 -0.015698589 0.00067931943
-0.91241276 0.42451614 0.16197534
-0.1831906 0.15944883 0.036458533
-0.93405885 0.41263369 0.18981864
-0.072640918 -0.015698601 0.00067931483
-0.89645767 0.44184065 0.10807446
-0.16681421 0.15089948 0.02560842
-0.90968424 0.42315608 0.13499926
-0.072640851 -0.015698619 0.00067930744
-0.37429604 -0.030206533 0.033216149
-0.92476016 0.40703666 0.16190425
-0.38105965 -0.032277104 0.043164324
-0.94641453 0.395156 0.19074751
-0.62241113 0.74991745 0.18079457
-0.37133425 -0.033397727 0.050246827
-0.90946132 0.4231084 0.10800016
-0.072640762 -0.015698647 0.00067929632
-0.36918482 -0.033743184 0.057265423
-0.94025087 0.4136152 0.13776383
-0.18475969 0.15788884 0.031448118
-0.07264071 -0.015698662 0.00067928992
-0.94183683 0.39123085 0.16379122
-0.19028056 0.1519898 0.035413105
-0.96820384 0.38102025 0.19259264
-0.62919414 0.72473919 0.17878295
-0.92623144 0.40634629 0.10889132
-0.17785807 0.15269032 0.026514081
-0.95450723 0.39553908 0.13767803
-0.072640605 -0.015698692 0.00067927793
-0.35776329 -0.042854436 0.032374877
-0.95860684 0.37446877 0.16468239
-0.62104392 0.72929943 0.15984146
-0.36642751 -0.045523409 0.041308388
-0.97930682 0.36288637 0.19353299
-0.64494199 0.71143544 0.17867643
-0.36236918 -0.045272239 0.048341684
